-3.4931062615738293 17.31621568830435 379.4680637994534
-3.2307593770476033 17.522314147053905 378.4785444904317
-3.2436563973294317 17.859123785472004 380.0772172755972
-3.243050017332663 18.117172630132494 380.0736688902243
-3.2244640632004686 18.266238400512197 377.9364015598023
-3.237322271498441 18.60558524251851 379.5311436230376
-3.2367122473749097 18.863296986003075 379.52758842175143
-2.9791251118340187 19.09363414254687 379.0706150072177
-2.9620494373895685 19.23716427569773 376.94394544208893
-2.957349372803688 19.4645683115302 376.41286696417166
-2.7171816508945033 19.808338560099543 378.07625443854175
-2.7165743788084398 20.065065193761853 378.0727122195388
-2.7009937696224524 20.203113709325205 375.95656000308236
-2.700384464042282 20.45849144268189 375.95299343055825
-2.69605414729364 20.683711585920143 375.4245159276331
-2.4418950360597083 20.909398243771207 374.9777695400431
-2.1853459500713996 21.103924270689422 374.0110840997633
-2.184740682248514 21.357999289289367 374.00752500976864
-2.1841340931025934 21.612076105613117 374.0039657387013
-2.1835261795223255 21.866154718842125 374.000406287793
-2.1829169384022 22.12023512815981 373.9968466582767
-1.9303348786946706 22.343269075279444 373.55356588689574
-1.9297275258302753 22.59703496221736 373.5500157957703
-1.6754663311559526 22.786521818114306 372.59062681654524
-1.9258748577117413 23.071482088717143 373.0244424808997
-1.9358380151191814 23.459102649184977 375.1024510339651
-1.6828073114938387 23.681042580269867 374.6563597919019
-1.4303795372167958 23.902422531181077 374.21133146784683
-1.4297731152390136 24.156560890962336 374.2078174981482
-1.6786758420302454 24.409502299052814 374.1247677141073
-1.4266106575642723 24.629690683984933 373.68106928250734
-1.4182652960948465 24.742425964906985 371.61131505642993
-1.4176538086372263 24.994916124677026 371.60777144182174
-1.417040966574457 25.24740805560708 371.6042276649938
-1.1669802372058422 25.465157788073828 371.16674716311
-1.1663692779818202 25.71733919768379 371.1632128152266
-1.165756962557459 25.969522381714835 371.15967830638357
-1.4126541953880747 26.220366740745273 371.0766026138524
-1.4120345496897446 26.47253872435003 371.07305240971243
-1.411413526007351 26.72471245884416 371.0695020544482
-1.4107911212551811 26.97688794345655 371.0659515492854
-1.4101673323534971 27.229065177417546 371.0624008954433
-0.9119969086057833 27.407023104668188 370.1946944055228
-0.9113796508446541 27.658578266889716 370.19116287699666
-1.1592342113781173 27.94782726341921 370.6191857539991
-0.910140998105777 28.161693865311612 370.18409937152916
-0.9095195969798701 28.41325429997731 370.18056739702
-0.908896808587423 28.664816490592244 370.17703527627634
-2.1563670872898744 29.112001446551552 372.3411936275217
-2.1557178823053293 29.365136389578936 372.3376124894127
-2.1550672423220254 29.618273058166206 372.33403122109394
-2.1544151642631943 29.87141145157124 372.33044982379784
-2.408444631149365 30.207624363800303 373.28210411497435
-2.1560794609422884 30.420321257425243 372.84068275257613
-2.155423112352015 30.67379648405753 372.8371065373127
-2.406461128790745 30.969000765124715 373.2713459511862
-2.409131917098602 31.26664303249838 373.78774194729715
-2.4084664583396314 31.520773769574124 373.7841611071842
-2.407799541738528 31.77490625175437 373.7805801416793
-2.659755947077493 32.0722563704116 374.2171102509037
-1.9056348762229132 32.24146471441893 373.41499220152014
-2.6621057788809415 32.626915018282084 374.7325275235961
-2.408460838285263 32.83741376410126 374.2875500290786
-2.6607491520743123 33.13650307251645 374.7253559879029
-2.6600686211281226 33.391299726054264 374.72177004062144
-2.6630969264199145 33.69330315251461 375.2420951575362
-1.904285491984094 33.811665413012136 373.91363874487155
-2.155724050178642 34.11164750106232 374.35066186120156
-0.040167695044641134 -35.58227096421841 364.3761925370867
-0.039853418326152155 -35.37758419614617 364.86515994984717
-0.28289780920971475 -34.6761472468258 365.2736839686323
-0.2829025833592295 -34.46979218324885 365.7650537174365
-0.28254992380513305 -34.22217553189486 365.7615759424887
-0.28219663484204005 -33.97455699246518 365.7580977448918
-3.2409556514758235 17.05935468560834 379.55247029915284
-3.240353258687122 17.317055023566223 379.548916398864
-2.9910446647196283 17.601908251671357 380.1612957700826
-2.9904438227803665 17.859969346697497 380.1577639380133
-2.977411607776071 18.03723626577288 378.55206778391215
-2.717040226512342 18.240953087075304 377.56743768960234
-2.7277428110463995 18.57974740464507 379.15805765839696
-2.7271415891985336 18.837145742468984 379.15452877997194
-2.470423558379482 19.067223662671875 378.69839017173416
-2.469824284200934 19.324298909541906 378.6948708755551
-2.2137280585157333 19.55346660327466 378.239841465969
-2.2100819737749586 19.781131323065342 377.7062930972297
-2.197364124679743 19.92056168503744 375.5956506502214
-2.1967649898085506 20.175630529767897 375.59211015086174
-2.1961645640895644 20.430701224548745 375.5885694527435
-2.19556284439899 20.68577376853497 375.58502855710344
-1.9418948107328176 20.911465180160075 375.1377734131072
-1.938640771008178 21.13556083522996 374.6119863426931
-1.6859357439846514 21.36011306311708 374.16711371920707
-1.6853379545258265 21.614218726697885 374.1635859200068
-1.6916538089592577 21.963293205390972 375.7267905465779
-1.6818448836643398 22.090602374474734 373.63683818913415
-1.6881406726438124 22.441115692699874 375.1962295197465
-1.6875374806754813 22.695896484760432 375.19271280187405
-1.1831479164192267 22.88698015592626 374.304528351363
-1.1825511639234938 23.141125131836965 374.3010308736499
-1.181953118918109 23.39527198628466 374.29753319882417
-1.1749820678544987 23.514659271399335 372.2229822994854
-1.17438170753521 23.767484365229095 372.2194607663826
-1.180151197739564 24.157723812456577 374.2870390038772
-1.423342495215422 24.306497027897684 372.6489713942027
-1.172572684245268 24.525970516820635 372.20889510243245
-1.171967018722944 24.778802854686234 372.20537286363
-0.920557692081526 24.962045463758653 371.25298590549886
-0.9199539640937235 25.21423776035545 371.24946730578466
-0.9193488986332936 25.466431854188258 371.24594853653974
-0.91874249261499 25.718627744459205 371.2424295989795
-0.6695153758774389 25.93552122181455 370.805742264656
-0.9175256465592376 26.2230249111335 371.2353912237694
-0.9169152003506655 26.47522618595035 371.2318717885541
-0.6668089948604593 26.6537080857363 370.28433201390294
-0.6662004514528738 26.90527248670735 370.2808162472093
-0.6655905517506203 27.15683866932103 370.2773003208589
-0.6649792926745363 27.408406632795316 370.27378423606615
-0.4167016014214969 27.622668171249362 369.8394454879346
-1.9107637627768619 28.100971097412796 372.4359652546487
-1.910125016369908 28.354114437670514 372.43240007330246
-0.41486941049309856 28.376452623000613 369.82892470411963
-1.9088432901200367 28.86040636680714 372.425269287599
-1.908200304103565 29.113554954170414 372.42170368570044
-1.9075558987142842 29.366705289056004 372.4181379460752
-1.9069100708692273 29.619857370710918 372.41457206995557
0.081742214436071 29.553467759937288 368.9528968684807
0.0823532478787863 29.804120323026364 368.9494079893558
-1.9075912606366137 30.421942779899517 372.9212430766057
-1.9069397745259358 30.67543343903773 372.9176822738372
-1.9062868553517616 30.92892585678338 372.9141213369336
-2.1570863476671343 31.22448203526663 373.348635667231
-2.159413398639641 31.522465625836414 373.8650260786057
-2.6644592431949667 33.183035954398605 375.2492558950019
-2.6637788236636166 33.43816867061323 375.2456755871663
-2.6630969264199145 33.69330315251461 375.2420951575362
-2.6624135483679483 33.948439399370486 375.2385146073607
-2.6617286864176584 34.20357741044915 375.23493393787817
0.44631627356258224 -35.5433373177704 364.0335442813484
0.689077059759605 -35.25677441309188 363.61399040832396
0.2043241053955408 -35.13220243264202 364.9360997601594
0.20466940136897774 -34.88519934897017 364.9326432767128
0.4483108754865055 -34.598724243323716 364.51095693507085
0.2053618150361475 -34.39118747232383 364.92572902325816
0.20601548366753414 -34.18469599534578 365.41588074793106
-0.0378116978129462 -33.97612737669795 365.8328018220283
-0.03745929127500375 -33.72849751532781 365.82933945416005
-0.037106261650509995 -33.48086574601777 365.82587666069526
-0.03675260583370667 -33.23323206991573 365.82241344279674
-0.03641535846027795 -33.02474401375193 366.3149826202968
-0.03605918706980605 -32.77679201373173 366.3115248153455
-2.747122677347023 16.87925880429158 381.326713288811
-2.4854637563010926 17.087350045917315 380.32842994047587
-2.484873847189539 17.345434866609985 380.32493129923944
-2.484282717585124 17.603521674531443 380.32143241552546
-2.4699883664974664 17.755430109262058 378.1846464412135
-2.4796587004187858 18.092714536847097 379.77911610574245
-2.222818115296208 18.324038565913064 379.3213390598754
-2.219161962273553 18.553934307936125 378.78520077041816
-2.2185694700768046 18.81101953157288 378.781698127153
-2.2057938128556147 18.95596264557876 376.6607248685478
-1.962127611799076 19.297601248674656 378.3229000183185
-1.9588410815641606 19.525623620504653 377.7894072871429
-1.9502042456213726 19.695236553126232 376.2037291132543
-1.946942588520174 19.921521979635013 375.6754086243766
-1.946347785074574 20.176605012884135 375.6718840289966
-1.4406848719076564 20.374251486115657 374.78140159790564
-1.4400964357536403 20.628697085204614 374.7778963385633
-1.437554959763906 20.852907095264126 374.25348414384604
-1.4369641064724024 21.107023147176708 374.24997250267563
-1.1851018364614223 21.331328361842814 373.8058976715825
-1.1909345261813067 21.710205007253535 375.8885345984921
-1.1903438603061478 21.96534290528099 375.8850562639756
-0.9376804842390867 22.18944476079071 375.4368391582584
-0.9358335038737552 22.411963136239542 374.91121297401986
-0.9352436183307988 22.66645140742592 374.9077376941368
-0.9346524641823675 22.92094159673329 374.9042622047815
-0.9340600383126022 23.17543370330357 374.9007865071708
-0.9334663376052985 23.429927726280734 374.89731060252336
-0.6817737255158729 23.651626723180694 374.45151915333076
-0.6802774033863447 23.871673769334503 373.92844687970404
-0.6796844348785074 24.125521412236445 373.9249740683023
-0.679090181758725 24.379370957416278 373.9215010562725
-0.6784946409174458 24.633222404030036 373.91802784483235
-0.4255527094309095 24.71225101098552 371.4139330244141
-0.4249592932638272 24.964469735069656 371.4104454966663
-0.4243645678585206 25.216690299723208 371.4069577859763
-0.4232194181041348 25.432991856009544 370.89140552412033
-0.42482645046776124 25.83041339156698 372.9436917859215
-0.4242276989767335 26.083627353803934 372.94022112502574
-0.4214234801631829 26.18868702980088 370.8809234272233
-0.42082217908306524 26.440589063686474 370.8774290470346
-0.42021954531667194 26.692492917544833 370.8739344949176
-0.4196155757766485 26.944398590575652 370.8704397720797
-0.17122953417588732 27.159505416203572 370.4345726368467
0.07643757618566033 27.335828889356364 369.4913966518062
0.07703640886834998 27.58678981239535 369.48791487677926
0.07763657927219787 27.83775254672601 369.4844329349108
0.07823809047050134 28.08871709155714 369.4809508274022
0.07884094553706182 28.339683446098835 369.4774685554539
0.07984737357115082 28.710559736889522 371.0027808156558
0.08045283132877694 28.96250816422413 370.9993154457534
0.08105962747031807 29.214458445809086 370.9958499038244
0.3289336049896033 29.426761940810536 370.5595750476466
0.3295384676417042 29.67840287937571 370.5561186897239
0.3301446702671046 29.93004567514876 370.55266216105673
0.5774277438066296 30.141197193583693 370.11743384819334
0.578032010177169 30.39253139726928 370.113986466008
0.5786376181054314 30.64386746109333 370.11053891434983
0.5784325882122849 30.85242332515453 369.5987393018938
-1.9076018516950068 33.60443071517746 374.43844769203184
-1.9069333274873919 33.858942691633686 374.43490229467994
-2.158727483828404 34.159386547321056 374.8732421131986
-2.161062106943449 34.46241449422069 375.393561105894
-2.413793695711025 34.76439721871008 375.8342425685245
-2.41310960516035 35.019893298943245 375.83068276276515
0.9299419156780535 -35.954031717420065 363.20913353083006
0.9315499502143489 -35.75052748440497 363.69449887124955
0.6896911631977838 -35.54493255835334 364.10743061856124
0.6900298444486751 -35.29853841687654 364.10399487723276
0.6903691118809006 -35.05214235777985 364.10055870130776
0.6907089685915567 -34.80574438221819 364.09712209194277
0.6920084638416175 -34.60027395935648 364.58486937194573
0.6923508033554149 -34.35356094942435 364.5814381490938
0.4496339144355013 -34.14572632527205 364.99646276411175
0.45061794878442357 -33.93890170390827 365.4865980836967
0.6943479537678064 -33.653189080289536 365.0635166758779
0.6946939588781967 -33.40615635470858 365.0600900005458
0.6950405637547395 -33.15912168844657 365.0566628924571
0.45201419410974775 -32.949551727301014 365.47285086631894
0.4523647799491222 -32.70220939896237 365.4694129867842
0.452715981790083 -32.45486513924842 365.4659746794999
0.20914244995668127 -32.24415839122292 365.8830874253873
0.20949769987115271 -31.996505805385887 365.87963832582284
0.20985358205567686 -31.748851297498092 365.87618880354455
0.21021009961575288 -31.50119486870208 365.872738859717
0.21056725565086976 -31.25353652013907 365.86928849550816
-2.2336614375677275 16.313822221888266 380.41844826025374
-2.233079322586553 16.57191449355655 380.4149667596321
-2.232496009430491 16.830008777724384 380.41148500667606
-2.488911190854573 17.11303039655883 380.8650571415805
-2.2313257759593874 17.346203379860224 380.40452074871706
-2.2307388493295397 17.604303695983685 380.40103824618893
-1.973780429742665 17.83655315272821 379.94162726482057
-1.9623721870880744 17.987098918881458 377.81040138120477
-1.969893608638988 18.32485683407112 379.4007553283101
-1.9665976148963118 18.55477247439684 378.86466753194804
-1.7109949736227261 18.78491839656754 378.40909752024567
-1.450076680915664 18.93073968451789 376.3727033539167
-1.7028185788890122 19.21348918624162 376.81618881965267
-1.7022315482269679 19.46925281837726 376.81269298411394
-1.6993200633771448 19.69615817250073 376.28313825266395
-1.4457769823844477 19.923388080635075 375.83402194948434
-1.4491288465782939 20.237479500160568 376.88130998668777
-1.4485411188849076 20.49326449626293 376.8778292882685
-1.1949004104982441 20.71979128193156 376.42716754045443
-1.194314630909614 20.9752571379066 376.42369622543123
-1.1921120847237157 21.199935009298432 375.89549061850397
-0.9394391139698167 21.424995115524133 375.4472448121704
-0.9401158245072814 21.711186592329696 375.9671995697712
-0.9382679473308736 21.93462627505658 375.4403079269264
-0.9364221239258633 22.157476784033427 374.91468804320994
-0.6838084116031989 22.348627907248083 373.9492794669319
-0.6823203258002389 22.57007444801519 373.4275021354429
-0.6817338245577143 22.823580987240923 373.42402435112183
-0.6829534241335782 23.14327608808707 374.45845170712937
-0.6823642099643987 23.397450445129486 374.4549855342707
-0.6817737255158729 23.651626723180694 374.45151915333076
-0.4306808326146551 23.87276641180606 374.00678976781955
-0.4284279557235528 24.02376446142036 372.45219797597514
-0.6772879243495566 24.310033565380422 372.8860712348965
-0.1790136070604859 24.600440723775982 373.5562231348787
-0.17759143278409945 24.71341629318971 371.49220614129877
-0.17700247843377268 24.965648825716887 371.4887340858704
-0.17641222743468327 25.21788322010044 371.485261841442
-0.17582067669463144 25.47011947551546 371.48178940922105
-0.17522782312718185 25.72235759113881 371.4783167904127
0.0732747899503514 25.93924964728387 371.0408881866201
-0.17403819514049615 26.226839399726014 371.4713709978598
0.07445797244254904 26.443107465013536 371.03396120499326
0.07491704702722156 26.657587846814277 370.5197096541994
0.07551190083089374 26.90919459189736 370.516239890323
0.07610807328862176 27.160803181941656 370.51276994853663
0.3236682295167161 27.375371361381568 370.07768382164767
0.324262489703895 27.626671409078256 370.0742230673776
0.07790453340972889 27.915640013769135 370.50235906773594
0.5718290582519878 28.09138654317914 369.6367183365977
0.5724227236796561 28.34238064460004 369.6332665557427
0.5730177109803472 28.59337659689917 369.6298145995666
0.5760571535022763 28.965206059163016 371.154980478651
0.8234495827752719 29.177816020401295 370.7182062055858
0.82288945911877 29.388562551646615 370.20526465456976
1.069358579104131 29.600112876979875 369.7707892273826
1.071441693145483 29.89260700690982 370.27562898469466
1.070544641314124 30.10217954484197 369.7639443715806
1.0711396483335385 30.353215709958167 369.7605216746231
1.0717359767253682 30.604253761453315 369.75709879988426
1.3176121308614706 30.81403947291338 369.32368183795836
1.3182065140996093 31.064770324847192 369.3202679933837
1.3188022203062115 31.31550306596505 369.31685397231786
1.319399252546953 31.56623769546293 369.3134397759482
1.3199976138984078 31.816974212538298 369.3100254054585
1.5631300389246454 31.980954881570852 368.37308364025523
1.5637265469523534 32.23106213454985 368.36967247187476
-1.9076018516950068 33.60443071517746 374.43844769203184
-1.9069333274873919 33.858942691633686 374.43490229467994
-1.906263347577544 34.11345646479408 374.43135676657664
-2.161062106943449 34.46241449422069 375.393561105894
-2.160384426311617 34.71758749545371 375.39001124865234
-2.1627239590747944 35.02174771997905 375.9116404890087
-2.4158019070476087 35.324846051061634 376.3536339865647
-2.425299376621186 35.7308029843317 377.9374707940963
-2.424611466957069 35.98766073472727 377.93393381988443
1.4104063489272414 -37.09820561475401 362.3986595076572
1.4088245714487417 -36.809541820262304 361.9100064315248
1.4091492046962737 -36.5646768958525 361.9065904393838
1.4094743961766811 -36.31981006135223 361.9031740086478
1.1693443118742157 -36.11593195945558 362.3118749830596
1.1696732702467647 -35.87076274298026 362.30844786083156
1.1700028029392977 -35.625591625713255 362.30502030492886
1.170332913030124 -35.38041860880391 362.3015923164965
1.170663603605351 -35.13524369340097 362.2981638966865
1.1725922743031745 -34.93120891130333 362.7812110237727
0.9316153283448152 -34.725116642266535 363.19197313184077
0.9319517716553312 -34.47932790719806 363.1885397571299
0.9322888090920781 -34.233537268129986 363.18510595347334
0.9326264437406754 -33.987744726207836 363.1816717220208
0.6920743499924367 -33.82013333835268 364.0833713432105
0.9345897287190448 -33.5356420776712 363.66365447375864
0.6927606567172457 -33.327316347532395 364.0764933982769
0.6940714573219406 -33.11996698596975 364.5642755528645
0.6944174010520779 -32.87324241856962 364.56084174532606
0.6957355851793613 -32.66504653848545 365.04980738264913
0.6960840079243454 -32.41800605708494 365.0463789832467
0.6964330428187592 -32.17096363960106 365.0429501557231
0.696782692960952 -31.923919287179512 365.03952090123533
0.6971329614483798 -31.6768730009646 365.0360912209466
0.4541270111791935 -31.46546880955896 365.4522171960855
0.45448133953095843 -31.218114910145683 365.4487767674783
0.45483630248207263 -30.97075908621757 365.44533591809443
-1.984447428373848 15.563826575867168 381.0445744626519
-1.9811414257422444 15.798316680195038 380.5045927859056
-1.98056580438774 16.056418084389765 380.5011282256767
-1.7238430739815278 16.2906337501121 380.0414028132607
-1.7232694264285515 16.548409960773867 380.0379476849998
-1.722694601261464 16.806188211967996 380.0344922961469
-1.7221185953215656 17.06396850275961 380.03103664793275
-1.466026530337441 17.296606418746265 379.5724530257712
-1.7186035151402117 17.55331729565239 379.4902537973606
-1.7180241435833068 17.810762206621057 379.4867909622699
-1.7174435734921787 18.068209136524377 379.4833278766578
-1.4557638140481994 18.218170759827483 377.4364343258813
-1.4611474488771308 18.556397250954454 379.0226823644668
-1.199542225989699 18.676134792765524 376.45492986976126
-1.1989662885708439 18.931585005201807 376.45146038634095
-1.1983891318376243 19.187037176193975 376.44799066969273
-0.9453370018130913 19.41491196000192 375.998351175857
-0.9447617843626283 19.67004574864295 375.99489080198254
-0.946719837885584 19.983462815729567 377.04206081096856
-0.947413667868326 20.26885827289504 377.56587886085686
-0.690260062973161 20.37703569487975 375.01736063666124
-0.6887763854152599 20.60163836250173 374.49310172403744
-0.6881997027836116 20.855793462046545 374.48963769879674
-0.6876217810170195 21.109950491245762 374.48617345332684
-0.6870426169980385 21.364109449227332 374.4827089888454
-0.43592098512405586 21.588102139788088 374.03789419203713
-0.43534375080677373 21.841946007166584 374.0344390039786
-0.1846127437055185 22.03342376975374 373.07373097318344
-0.18403754249049814 22.286622720364242 373.07027897293
-0.18346109370092786 22.539823590096717 373.0668267590792
-0.18288339422996427 22.793026378089966 373.06337433283534
-0.18209514338653784 23.0133543972684 372.54419592539944
0.06712834883156114 23.234160095439346 372.1041126765923
0.31576189071140653 23.454412241243187 371.6650710418624
0.3163356646467119 23.706662246666152 371.66163099730926
0.31691069455198567 23.95891416079103 371.65819074571345
0.317486983518549 24.211167982767897 371.6547502882749
0.31806453464450457 24.46342371174862 371.65130962619395
0.3181669536491423 24.680767386683264 371.1359198556812
0.3187469902470428 24.932699508065166 371.13247285803794
0.31932830327580347 25.184633517988335 371.1290256631033
0.3199108958256704 25.436569415617374 371.1255782720809
0.3204947709824193 25.688507200118245 371.12213068617035
0.321079931839581 25.94044687065862 371.1186829065723
-0.6715903679167398 26.298413908039496 372.3423167891991
0.5685226431862722 26.371407900944018 370.169123430842
0.5691071554179984 26.62271410595983 370.16567873430233
-0.6697686556028786 27.05704024281045 372.33183891477825
0.8164358871860108 27.088672651409293 369.7279090065432
0.8170197778239368 27.33967282935472 369.72447323023175
1.0631791617123245 27.553478861962258 369.29117870686423
1.0637611340072153 27.804171882730078 369.28775200096743
-0.4171246183406412 28.243480344501652 371.36509142857346
1.308102121746545 28.228306465220637 368.3475400223727
1.3086834926131847 28.478372301365763 368.34411636102203
1.3165600847379892 28.88846769336111 370.3661673971118
1.3171439264826967 29.139832679325266 370.36276680445303
1.317729056700001 29.39119959256267 370.3593660183764
1.5637137261383751 29.602744217114147 369.9244054988611
1.5642969013689358 29.853802998686533 369.9210136959342
1.5648813666982597 30.104863710224564 369.9176217009223
1.5633034159085206 30.313935388119873 369.40725174278873
1.808366944905773 30.52381104313897 368.97459323759836
1.8089508118388549 30.77424286983803 368.9712040996215
1.8095359785158986 31.024676612584887 368.9678147757665
2.054017478535239 31.233413562488945 368.5361897603211
2.0546006923229845 31.4835414862258 368.53280935152287
2.0551852074687127 31.73367132868945 368.5294287581515
2.0557710270347824 31.983803089065702 368.5260479813848
2.0563581540882203 32.233936766542335 368.5226670224003
2.056946591692796 32.484072360308716 368.51928588237695
2.05471744842851 32.68932220006636 368.0125899514333
2.0553086278702657 32.93913967844544 368.00920262576574
2.0587197984653858 33.23449063126294 368.5091413878458
2.3026016459286587 33.440251710779464 368.07860050245193
-1.9109076754278285 34.46421820633298 375.4742156749495
-1.9102350473562575 34.71940662947125 375.47068136529066
-1.9095609639055695 34.97459687872827 375.46714692095514
-1.9088854219790525 35.22978895335086 375.46361234316646
-2.161361542709902 35.532776506977015 375.9045516293661
-2.16370472504816 35.83841330719418 376.42750175391893
-2.1630199952169056 36.09427000339942 376.4239627824349
-2.162333791493884 36.35012853241718 376.4204236811359
1.6474591977443778 -37.74599953505879 361.51241610767715
1.6477790487432917 -37.501440188824304 361.509011674589
1.167708027015729 -37.34174948961624 362.329004048889
0.6854546417229443 -37.181248619775985 363.1527160578902
0.685786601079111 -36.93548779203957 363.1492709296145
0.6861191361650787 -36.68972507067752 363.1458253660442
0.6864522500681577 -36.44396045684584 363.1423793683365
0.44529963360051 -36.28248136036415 364.04389735284104
0.4456379231619395 -36.03610191154737 364.040446761482
0.6884029154646515 -35.74893997973551 363.62087390843254
0.44631627356258224 -35.5433373177704 364.0335442813484
0.44665634058559406 -35.29695217511733 364.030092394891
0.204023538380765 -35.090532865038945 364.4436855450878
0.20466940136897774 -34.88519934897017 364.9326432767128
0.4483108754865055 -34.598724243323716 364.51095693507085
0.2053618150361475 -34.39118747232383 364.92572902325816
0.9351968669360593 -34.06805474366685 364.1605086293948
0.9355376700809714 -33.82164017829055 364.15708642020985
0.20671413704621974 -33.69004696417534 365.40897640995144
0.9362210561712178 -33.328805250703695 364.1502407043899
0.9378586659765987 -33.12143788805836 364.6379999767558
0.9382031221527053 -32.874704374365216 364.63458231268555
0.9385481773498996 -32.62796891647038 364.6311642166623
-0.03570238574262375 -32.52883809414463 366.3080665857326
0.9392400971910092 -32.13449217266823 364.62432673337696
0.9395869680209588 -31.88775088905381 364.62090734842684
0.9399344502490411 -31.64100766582364 364.61748753614756
0.9402825469726314 -31.39426250412002 364.6140672976899
0.9406312612813106 -31.1475154050848 364.61064663421564
0.9409805962700171 -30.900766369857692 364.60722554687607
0.9413305550375078 -30.65401539957724 364.6038040368317
1.2242874924761429 -13.99024879229978 368.4202841635421
1.2246923096803577 -13.74083043955803 368.4169016722019
1.2250979112136098 -13.491410077117127 368.4135188044002
1.2255043001882133 -13.241987706052228 368.4101355613041
1.2259114797166681 -12.992563327437399 368.40675194408317
1.2263194529112658 -12.743136942344838 368.4033679539049
1.2267282228838465 -12.493708551845529 368.3999835919371
1.2271377927470382 -12.244278157008745 368.3965988593505
-1.2239264394283642 13.735204686018886 380.7675960455947
-1.2233720320714594 13.99332742218728 380.7641831411895
-1.2228165096777661 14.251452270715076 380.7607699479441
-1.220606875720759 14.48741357161269 380.22231148929455
-1.2200493742457577 14.745200654778268 380.21889111779257
-1.2194907430126438 15.00298983018134 380.2154704650456
-1.218930978857169 15.26078109685956 380.21204953228107
-1.21837007862061 15.518574453852137 380.2086283207187
-0.961481615609273 15.729426055924122 379.2170885125085
-0.9609229352552533 15.986554527917136 379.2136700596423
-0.9603631118044932 16.243685075648916 379.2102513334778
-0.9598021421038267 16.500817698169104 379.2068323352314
-0.9592400229991235 16.757952394529447 379.2034130661266
-1.4686025834477099 17.064681475548742 380.1097202019612
-0.9542717890936387 17.19522818836985 377.6071676307698
-0.9537068127860419 17.451352938857912 377.60372827633427
-0.9531406589843934 17.707479708752782 377.6002886675813
-0.9525733245474023 17.963608497131546 377.59684880572917
-0.9507317068293725 18.192850915410226 377.06619272764146
-1.2033632604875883 18.475083295689437 377.5116171132305
-0.9495914658324056 18.70444432948723 377.0592991099702
-0.6955128866785092 18.90546733206621 376.08345889402574
-0.6949442897297212 19.160610257226644 376.08001498666556
-0.6943744907376759 19.415755167510373 376.07657083907606
-0.4421769346757532 19.643055284169254 375.6277573877468
-0.441609082473864 19.897882498485032 375.62432249954736
-0.44047812822616533 20.123429368971887 375.098855106733
-0.18923914452127538 20.34926266283668 374.6524416295452
-0.1886721760450705 20.603442031798455 374.64900951761547
-0.1878921999329683 20.827494706635505 374.1261136533766
-0.18732293491670532 21.08134588635372 374.12267492054906
-0.1867524479789559 21.33519902200729 374.1192359604893
-0.18618073600360202 21.589054112715143 374.1157967744039
0.06409673119429869 21.812483522438594 373.67179296440065
0.06453147378721313 22.034397063883887 373.15143664755794
0.3138665172868721 22.25670330956391 372.70978636487547
-0.6841280540841093 22.63493314045768 374.46538342374754
-0.683541371134695 22.889103652910233 374.46191767069354
0.31509517896229955 22.98261977970877 372.18510288906464
0.3156665335305234 23.235194070454753 372.181669260434
0.3162391328495682 23.487770287649333 372.1782354185959
0.3168129800198663 23.740348430433517 372.1748013647506
-0.4295361589368207 24.092256126173524 373.48502436145935
0.5657680878248512 24.212241408146653 371.73210828334845
0.565523125537036 24.429931765841495 371.21677459603
-0.1780075727320975 24.78353164832758 372.51997978300216
-0.17741852444049072 25.036421697683753 372.51651953345663
0.07191471902674398 25.290467935220168 372.5910021743995
0.07250187590698629 25.543375279681246 372.58755709769696
0.815265773287343 25.654687528839148 370.7661437253996
0.815842005116515 25.90632715927679 370.7627208904521
0.8164195055227615 26.15796870146571 370.7592978547889
0.5701535388677967 26.445533060413997 371.18931835555196
0.570738078741686 26.697491802512666 371.18588543051465
0.32391014513166516 26.98608570137317 371.6168920140993
1.0635065049372638 27.08989299678833 369.8050024346802
1.064085895354008 27.340906461855585 369.8015819639676
0.8187567473414507 27.62921977065127 370.2292806350609
0.8193432246685072 27.88054878997497 370.2258503370392
1.3111603527380524 28.05612501937141 369.3612221402266
1.3117403860618968 28.306835036746733 369.3578103154225
1.3123217085541712 28.557546952258757 369.35439830106617
1.3183946068461077 28.92871684680556 370.875602038832
1.318978414380067 29.180407653713527 370.8722074072981
1.3195635054074226 29.43210040380409 370.86881257862353
1.3201498830152045 29.68379509624288 370.865417553996
1.8116212541756795 29.85509305739083 369.99739859218744
1.8122011345351623 30.10616668424184 369.9940218801983
1.8127822954923325 30.35724226122998 369.9906449713819
1.8133647401179958 30.608319787522827 369.9872678669223
1.8114466277496317 30.816769713706467 369.4769366477617
2.056261891607761 31.026024735700563 369.04405587937555
2.0568437300374485 31.27647335340287 369.04068155032826
2.0574268618037883 31.526923906381217 369.0373070318449
2.0580112899748584 31.77737639381423 369.03393232510274
2.0585970176212065 32.027830814882414 369.03055743128
2.302824081038047 32.2353325614419 368.5987290445567
2.5464779986142387 32.44231712435097 368.16791307187344
2.3039929041992533 32.73563155301685 368.59199681958256
2.301424751663482 32.940584908292756 368.0853455621154
2.3020125411920653 33.190417350463875 368.08197312156994
2.545326183276743 33.39597237120911 367.65243102301633
2.5459120096109853 33.64550047810121 367.64906742567797
2.546499149680842 33.89503050658161 367.645703649881
2.547087606542069 34.14456245584587 367.6423396967971
-1.4043618638308375 35.13518064701408 374.5777920946358
-1.4056520682812197 35.43911692037684 375.0968003525208
-1.4049835963643507 35.69400716472092 375.09329076721207
1.1683128856933762 -38.122363019144224 362.8256714933873
1.1686387371675624 -37.87690115690607 362.8222541111844
0.9276232271900934 -37.67443253218932 363.2331397510069
0.927952781686277 -37.42866673498839 363.22971161352984
0.9282828932763025 -37.1828990199301 363.22628303328634
0.9298813872548286 -36.980952027927344 363.71161935750314
0.9302139721646184 -36.73487097777681 363.70819614395714
0.9305471178245543 -36.48878799718757 363.7047724874102
0.6886786056227309 -36.2841034655036 364.1177352234174
0.6890155468749315 -36.03771508382485 364.1143007928098
0.6893530650354559 -35.79132478105525 364.1108659241392
0.6896911631977838 -35.54493255835334 364.10743061856124
0.6900298444486751 -35.29853841687654 364.10399487723276
0.6913255513377625 -35.09369418723626 364.59173051200037
0.6916667141996662 -34.846985039012644 364.58830015996875
0.6920084638416175 -34.60027395935648 364.58486937194573
0.6933135060377102 -34.39427560141302 365.07379409377313
0.45027039645959205 -34.18623435811216 365.49003380704494
0.45061794878442357 -33.93890170390827 365.4865980836967
0.45096610161136924 -33.69156711257155 365.483161926789
0.45131485804041815 -33.44423058525633 365.4797253374808
0.4516642211737476 -33.196892123115646 365.47628831693766
0.45201419410974775 -32.949551727301014 365.47285086631894
0.4523647799491222 -32.70220939896237 365.4694129867842
0.452715981790083 -32.45486513924842 365.4659746794999
0.20914244995668127 -32.24415839122292 365.8830874253873
0.20981724159271892 -32.03438655435647 366.3756580052049
0.2101743593110426 -31.78641754470878 366.3722147688583
0.2105321068353762 -31.53844659791126 366.36877110722753
-0.03391714331522094 -31.326073525750136 366.7880296285184
1.7101755709152522 -15.454363141652424 367.5875249010109
1.710569327987436 -15.205573577849929 367.5841640707513
1.7109638364319304 -14.956781986798223 367.58080285371915
1.711359099357237 -14.707988369582507 367.57744125107484
1.7117551198696699 -14.4591927272871 367.5740792639775
1.712151901077719 -14.210395060994726 367.57071689358855
1.7125494460895787 -13.961595371786329 367.56735414106777
1.7129477580110393 -13.712793660741719 367.5639910075767
1.469505315120839 -13.477684113116384 367.9865789000713
1.4699084298967386 -13.228570409359765 367.9832053498011
1.714147326310649 -12.96637640736474 367.5538993328913
1.7145487369454775 -12.717566619742021 367.5505346871289
1.9582155147473548 -12.456321227042096 367.12224181575806
1.4715287539649506 -12.23209547412487 367.9697074022477
1.9590157057482567 -11.959306003876351 367.1155298859888
1.9594169766105805 -11.710795363660573 367.11217336048645
1.9598190351862816 -11.462282705779387 367.1088164627845
1.960221884578803 -11.213768031298102 367.10545919404154
1.9606255278911997 -10.965251341280824 367.10210155541677
1.9610299682264025 -10.716732636789942 367.0987435480701
1.961435208689326 -10.46821191888638 367.0953851731609
1.9618412523806004 -10.219689188629575 367.0920264318483
1.9622481024039775 -9.971164447077676 367.0886673252924
1.9626557618631197 -9.722637695287075 367.08530785465354
1.7198394084616024 -9.482856271012864 367.50676057537305
-1.2278002512308004 13.518835315605436 381.8450455526886
-1.227246391639032 13.777642334765694 381.84164631718073
-1.2250296698331193 14.014862627597886 381.3005466151315
-1.224473876091079 14.273330281212367 381.29714008018175
-0.7120316399511586 14.466414174921205 379.84416702918713
-0.7114823155040219 14.723884606563182 379.8407729566435
-0.7109318818357456 14.981357158346576 379.83737859483773
-0.7103803357868235 15.238831829299468 379.8339839449847
-0.7088952651153346 15.472902741850316 379.2982443625738
-0.7083417263884993 15.730041440813075 379.2948425483878
-0.453972201912336 15.963773946190091 378.83790143519354
-0.7072312645349456 16.244325135145203 379.28803807976186
-0.4528679647858065 16.477407470225305 378.8311159673904
-0.45231415445098355 16.73422738506628 378.8277228145318
-0.7037018683017899 16.965060198013287 378.2170056774772
-0.4494902561639798 17.17110049176967 377.2356789664942
-0.4489336564340961 17.42691350584367 377.2322655573635
-0.44837589965188535 17.682728566895058 377.2288518858135
-0.44781698267924047 17.938545673991257 377.2254379530561
-0.4466895287475555 18.16755535230358 376.69617918640023
-0.44612846611687884 18.423040412931005 376.6927583643628
-0.1942479715137431 18.706765872710598 377.29268643747145
-0.44613788012214045 18.989721088209745 377.73894033983515
-0.19269754886026838 19.162217818062793 376.23551605572607
-0.19192186818301854 19.389044450935412 375.70884438437986
-0.19135939359789564 19.64388244006252 375.7054257050004
0.059985946886502925 19.870609401171826 375.25743702000744
0.06054646701385698 20.125130379319028 375.25402751711664
0.06110817367859592 20.379653371633527 375.25061776856717
0.06153576265518154 20.60431586219503 374.72651383008804
0.3119245782962286 20.829263357941528 374.28092706962417
0.31248538643705914 21.08314014491801 374.2775199689288
0.3125663559342839 21.306315637177782 373.75597745783875
0.3136105953741477 21.590899716098374 374.2707050512467
0.31417500240255286 21.844782498510593 374.26729723666347
0.3142592374055902 22.06697029969892 373.7457354397348
0.5636916949858624 22.289522180410945 373.30255072865367
0.5642552522789743 22.542761976018244 373.2991456033698
0.5648200222441231 22.796003754578475 373.29574024777145
0.5653860079862021 23.049247515208187 373.2923346630557
0.565129431144752 23.26930996627491 372.7733025231621
0.5656977784526841 23.52222803430737 372.7698903591864
0.5662673559201019 23.77514806552728 372.7664779734665
0.8147466571959107 23.995011917958298 372.32568608165496
0.815314289321975 24.247619834441913 372.32228277757554
0.8158831533050401 24.500229716774253 372.3188792531706
0.5685580294578345 24.786847804888744 372.75282623712167
0.8170245892477936 25.00545537551336 372.3120715481542
0.321241240107452 25.327429221810167 373.1843597608467
0.32182398544726637 25.580679726040966 373.1809363123109
0.32192793788306673 25.797443099931787 372.66178970996646
1.0666141910343012 25.980427386927214 371.86217564391467
0.5720314720162841 26.304456162260006 372.73234218400967
0.8193157962547711 26.48390002694379 371.77847710562963
1.3113629817133785 26.626269684513183 370.396763831314
1.5573830645768905 26.841225235448842 369.9617023146629
1.5579522519398101 27.09226273240913 369.9583127028484
1.5585226955233629 27.343302168530325 369.95492288592163
1.5590943984113794 27.594343542967888 369.95153286506354
1.5596673636871659 27.84538685487971 369.9481426414614
1.5645854268993795 28.17486238306566 370.9622830501183
1.8081686921284188 28.3486922959923 370.01765466458835
2.0533476072016086 28.561252350904343 369.583431392559
2.0539166538995097 28.812004805755418 369.5800649950574
2.0544869582144836 29.062759220046107 369.5766983926378
2.05505852322256 29.313515592933644 369.5733315864825
2.055631352000108 29.56427392357645 369.5699645777676
2.056205447624049 29.815034211134538 369.5665973676675
2.297628274291872 29.984083079503154 368.62901466738475
2.2982004636223605 30.234214143870954 368.625650372599
2.2987739264268727 30.484347151909766 368.6222858814687
2.2993486657717 30.734482102789315 368.61892119516733
2.299924684727271 30.984618995681267 368.61555631487045
2.300501986361479 31.234757829758514 368.6121912417504
2.3010805737408893 31.48489860419615 368.60882597698526
2.3016604499365703 31.735041318170328 368.60546052174766
2.5383647447191424 31.855153093590623 367.17179384986576
2.5389428484950405 32.10434944054952 367.1684255044433
2.5464779986142387 32.44231712435097 368.16791307187344
2.547058494991772 32.69215855297342 368.16455607714147
2.54764028792732 32.94200192208394 368.161198895598
2.783110848086146 33.057403536193505 366.73099226804896
2.7874890777331176 33.351795506394595 367.22724766149975
2.7918774752853825 33.6469382016862 367.72471281287255
2.792459897962786 33.896481029758384 367.72136406356947
3.0349571777876894 34.10090844597321 367.29260702512323
3.035537626353027 34.35014758399083 367.2892670423784
3.0361193777327538 34.599388666800465 367.2859268765939
1.1689181476743102 -38.90491521889626 363.3234448649415
1.1692437817834058 -38.65915057200928 363.32003510920197
1.4106908729115906 -38.369470680171325 362.9020488239446
1.4110149920871216 -38.124002361246035 362.8986479964357
1.4113396397927822 -37.878532093248175 362.89524671613606
1.4154940126690283 -37.72241473005522 363.8680266351212
1.4158224745243682 -37.47632269572099 363.86463709884663
1.4161514628939067 -37.2302286835489 363.8612471058534
1.416480980868473 -36.984132694713544 363.85785665728156
1.4168110315328801 -36.73803473038838 363.85446575427505
1.1770017228552347 -36.577068962445566 364.75901388116984
1.1773368243987443 -36.33035434642443 364.75561861013296
0.9350533088938299 -36.124975905640355 365.17124973405345
0.9353921534653534 -35.87795404616635 365.16784369787996
1.1783454005615621 -35.59019860829097 364.74543008208934
1.1786826934378105 -35.34347606946061 364.742033004928
0.9364120371870609 -35.13687662633077 365.1576228969342
0.9354639854694216 -34.84851794947801 364.6619114336168
0.9358043351222396 -34.60179807747821 364.6584968255331
0.9361452621391514 -34.35507625319627 364.655081777419
0.9364867696145265 -34.10835247779111 364.6516662904261
0.9368288606418123 -33.86162675241967 364.64825036570943
0.9384671583944943 -33.65466860531829 365.13716928294264
0.6956641756847521 -33.44571685460345 365.55364075542246
0.696012052628725 -33.19836942666201 365.55021995928564
0.6963605268423784 -32.951020042965865 365.54679872783515
0.6967096014242826 -32.70366870466909 365.54337706222947
0.6970592794740014 -32.456315412925264 365.53995496362825
0.6983884861446381 -32.24704709680653 366.03128877336735
0.6987406270176284 -31.999376316436397 366.02787214620724
0.6990933750750578 -31.751703569796902 366.02445508580297
0.6994467334126788 -31.504028858039753 366.02103759331743
0.45578928629779625 -31.291884607154895 366.4395973040291
0.4568043441228155 -31.08060220418957 366.93335819092255
0.45716359624366476 -30.832300985550937 366.9299358628687
0.4575234724526189 -30.58399779585798 366.92651310517
0.4578839758608645 -30.33569263625915 366.923089918991
2.441775437668981 -15.422852830193397 366.8114159525469
2.1996585851018335 -15.190451416891499 367.2323887775233
2.2000476069738606 -14.941957932230158 367.2290532125693
2.200437363588236 -14.693462394071526 367.22571725502405
2.2008278580478278 -14.444964803505208 367.2223809060401
1.9581681398897532 -14.211055482059736 367.6442870356124
2.2016110729259277 -13.94796346950202 367.21570703837057
1.9589592693910554 -13.713435299709039 367.6375932004296
1.9593559686790356 -13.464622144048326 367.63424570447927
2.202791506711979 -13.202446102604165 367.205693329927
2.197076052059071 -12.92671712443691 366.208801791495
2.203582239769292 -12.705424293374085 367.19901559980997
2.446445521929336 -12.444500271190282 366.7714828974732
2.446839552969411 -12.19629088641962 366.7681526279589
2.4472343457682597 -11.948079454659785 366.76482197690524
2.4476299034279685 -11.699865976985087 366.76149094546696
2.448026229049318 -11.451650454468568 366.75815953479497
2.4484233257340957 -11.20343288818164 366.7548277460418
2.4488211965821955 -10.955213279194563 366.75149558036014
2.4492198446954108 -10.706991628575736 366.74816303890276
2.4496192731742252 -10.45876793739247 366.7448301228228
2.691897306848908 -10.200913890610446 366.31836822631067
2.211062434646833 -9.981515963229924 367.66089295983795
2.2114683145866314 -9.732662745069074 367.6575557718744
2.454627197461768 -9.47505266478844 367.22890971171586
2.4550313413258293 -9.226502748723574 367.2255813126427
2.455436278704853 -8.977950782136546 367.2222525421641
2.2130998101254185 -8.737229410289054 367.6442033111537
-1.2322429161350192 13.041808032733828 382.9312193036782
-0.9734907323384545 13.260511523169475 381.92614325790794
-0.9729418687121896 13.519328319654745 381.9227609646029
-0.971089158166672 13.756907276684508 381.3817255391475
-0.9705383993619187 14.015384850621318 381.3783358800069
-0.7144541850098909 14.252517840038747 380.9161517156452
-0.45841226313674416 14.46694903563607 379.9214913301257
-0.45786686824600253 14.72443139238553 379.91811370639067
-0.45732037702134465 14.981915891805459 379.91473578746144
-0.20261948875131436 15.19390696917685 378.9252241659507
-0.20207524324658424 15.450728302064256 378.9218487695393
0.051431869941955144 15.684516775882015 378.4657418010179
0.05197412723654264 15.941015820084434 378.46237553969553
0.052517486642173775 16.19751699539285 378.4590089891081
0.05306195130943677 16.454020300838383 378.4556421504585
0.053607524389443446 16.710525735453857 378.45227502495396
0.05401952090617399 16.941792362688755 377.92057622440393
0.05429831657605599 17.146996154210893 376.8644229190444
0.05484661083063873 17.402497725043784 376.8610353678425
0.05539604171264344 17.658001370311226 376.85764754620646
0.055946612359760235 17.91350708907112 376.8542594553409
0.05649832590840296 18.169014880383052 376.85087109645235
0.05705118549810906 18.424524743308158 376.84748247074646
0.057470138783627264 18.652635573342263 376.31960438814735
0.5592335824049336 18.854050226432474 375.4248817272818
0.558951439483402 19.080735391733228 374.90092515280645
0.559500014482824 19.33494230135581 374.89754195718746
0.5600497462931061 19.589151255032665 374.8941585042775
0.5597724479902167 19.81458253204259 374.3714473957916
0.5603243514659606 20.06846372021228 374.36805712424405
0.5608774262613535 20.322346933127598 374.3646666028099
0.8104278179065735 20.547361593291733 373.9198772235182
0.810978938515847 20.80093010474813 373.9164957641044
0.811531232203942 21.054500643464866 373.91311405629614
0.8109146607323471 21.277459343782894 373.39293452363194
1.0595201408707913 21.500711870690793 372.95052117376514
1.060071535619284 21.7536411147224 372.9471420023
1.0606241134271541 22.00657237120461 372.9437625888984
1.0611778774027711 22.25950563923932 372.9403829347519
1.0617328306555025 22.512440917930395 372.9370030410536
1.060780633333979 22.732948649699743 372.41933635319145
1.0613378833096123 22.985559273482032 372.4159498043214
1.3089953913828754 23.206124377671067 371.9759218913074
1.3095506936526324 23.45842353882976 371.9725443426054
1.3101071982315404 23.710724695111406 371.9691665619462
1.3106649082166653 23.96302784563294 371.965788550519
1.3112238267102476 24.215332989512927 371.9624103095126
1.3099407615685823 24.43308602030302 371.4472315771336
0.32007952485993574 24.82093406972763 373.19120602327257
0.5691338042743745 25.039777639015615 372.7494127606586
0.569710827865423 25.292709431129445 372.74599906964266
0.5702891033355176 25.545643180369353 372.7425851652726
1.5588995168377686 25.657992745199078 370.99605776330617
1.5594625324177367 25.90967082997139 370.9926812609555
0.5720314720162841 26.304456162260006 372.73234218400967
2.048282271583445 26.304568571919205 369.61371955443605
2.048840138306966 26.555303353613304 369.6103550542
2.0493992349288095 26.80604010240612 369.6069903384419
2.049959564528312 27.056778817440772 369.60362540834524
2.0505211301910067 27.307519497861037 369.6002602650846
2.051083934992294 27.558262142812737 369.5968949098387
2.2956987778040814 27.77152658825944 369.1636562961064
2.0522132743370824 28.059753322901248 369.59016356810173
2.540296415962338 28.23438731063288 368.7280877388676
2.540855318996582 28.484517146565548 368.7247400799361
2.5379240556730682 28.694929113648577 368.21824477876083
2.781055186320166 28.90599443037179 367.7883026934261
2.78161340940135 29.155500215066343 367.78495764634306
2.7821728785684514 29.405007956900793 367.78161239388766
2.5401772347869986 29.69418971681706 368.2048273492738
2.790940033407279 29.986566044127695 368.7799940199953
2.783858793233261 30.15354291684301 367.7715754160024
2.7844232773993407 30.403058478843572 367.7682293537587
2.784989022979444 30.652575993794688 367.76488309198714
3.0233962010027744 30.81868818388602 366.83648962296036
2.7823161342996845 31.108896502967802 367.257429206995
